# .PCD v0.7 - Point Cloud Data file format
VERSION 0.7
FIELDS x y z
SIZE 4 4 4
TYPE F F F
COUNT 1 1 1
WIDTH 1234
HEIGHT 1
VIEWPOINT 0 0 0 1 0 0 0
POINTS 1234
DATA ascii
-2.67458415 -1.731590748 0.7355899215
-2.68031168 -1.72271204 0.7355899215
-6.322319508 -4.047957897 -2.011541605
-6.838645458 -4.37517786 -1.874292135
-6.875463486 -4.397042274 -1.586385965
-6.937770367 -4.433477879 -1.30403769
-31.62460709 -20.20145607 4.607635975
-6.463154316 -4.1270051 -0.9415625334
-30.91559219 -19.74094963 5.809663296
-6.979708195 -4.455132484 -0.7244385481
-28.29978752 -18.05673981 6.525286198
-7.139774799 -4.553795338 -0.4438089132
-26.82828331 -17.10467148 7.345551491
-7.140848637 -4.552727222 -0.1478218883
-25.89658737 -16.50429916 8.228375435
-6.836997032 -4.343913555 -2.170456409
-6.876146317 -4.3671031 -1.880590796
-6.902373314 -4.3803792 -1.589057326
-43.54934692 -27.62659454 4.512053013
-6.959106445 -4.414679527 -1.305289149
-31.82218552 -20.17939377 4.626647949
-7.001588345 -4.438202381 -1.017852783
-33.56731033 -21.26960564 6.293984413
-7.013731956 -4.442468643 -0.7263559699
-29.15892982 -18.46914482 6.709226131
-26.81899261 -16.97392273 7.327555656
-2.735436201 -1.746694922 0.5140436292
-2.735903263 -1.744305491 0.7490870357
-2.741516829 -1.737135887 0.5140436292
-2.708739519 -1.714379787 0.7400889397
-6.872484684 -4.331185818 -2.176668167
-6.943983555 -4.372859955 -1.894537807
-6.97819519 -4.392703056 -1.602795601
-35.7347374 -22.48595047 3.693834782
-6.987710953 -4.395288467 -1.307479262
-31.97337532 -20.10354996 4.637372017
-7.076625824 -4.449492455 -1.026383638
-33.98287964 -21.35876846 6.357183933
-7.073830605 -4.444290638 -0.7308880687
-28.22543907 -17.72638512 6.478728771
-26.94374084 -16.91488647 7.344651699
-25.84055328 -16.20974922 8.173505783
-8.357523918 -5.228447437 -2.641507149
-6.974970818 -4.360138416 -1.899036765
-7.017697334 -4.385143757 -1.608519793
-7.037435055 -4.394062519 -1.314049482
-31.96913719 -19.95326805 4.627135277
-30.71118736 -19.16812706 -4.445062637
-33.85911179 -21.12466812 6.320890903
-7.167985916 -4.47036171 -0.7390807271
-33.51204681 -20.89188576 7.676245689
-26.82768059 -16.718256 7.297862053
-16.12358665 -10.03995419 5.089417934
-2.7478652 -1.727076054 0.5140436292
-2.748013973 -1.725162983 0.7490870357
-7.111550331 -4.438613892 -1.029308438
-2.753577232 -1.717954278 0.5140436292
-2.753719807 -1.71604073 0.7490870357
-8.381381035 -5.204780579 -2.643577814
-6.999326229 -4.343149185 -1.901736259
-7.045547485 -4.370127201 -1.611572742
-2.759259224 -1.708813667 0.5140436292
-15.57406998 -9.633768082 -0.9597367644
-2.759395361 -1.706899643 0.7490870357
-8.405173302 -5.181013107 -2.645648241
-7.04853487 -4.341376305 -1.911184192
-15.61215973 -9.608421326 1.603839993
-14.78060055 -9.093086243 -2.748553514
-15.53972149 -9.556362152 2.239958525
-15.48047066 -9.516201973 2.878081322
-15.50380898 -9.519367218 -0.9534564614
-2.715219736 -1.667149901 0.7355899215
-2.764910698 -1.699654222 0.5140436292
-8.407623291 -5.140095234 -2.640471935
-9.919760704 -6.059801579 -2.683665991
-15.57479572 -9.514359474 0.9564919472
-11.93165398 -7.285971642 -2.71750164
-14.78347588 -9.020331383 -2.742921829
-15.57464218 -9.499341965 2.239958525
-15.43766022 -9.412096977 2.863689423
-15.46871662 -9.423625946 -0.9492695928
-15.40745258 -9.382616997 4.1647439
-8.421319008 -5.110181808 -2.639436722
-9.939801216 -6.026873112 -2.683665991
-11.96414471 -7.251452446 -2.719409704
-14.79978943 -8.963070869 -2.740418911
-15.43963814 -9.346895218 2.216072083
-15.47554684 -9.364942551 2.864940882
-15.49988174 -9.372278214 -0.9492695928
-2.796838522 -1.690491438 0.7544858456
-2.771121502 -1.689508915 0.5140436292
-2.771244287 -1.687593937 0.7490870357
-8.444190025 -5.079800606 -2.640471935
-9.956188202 -5.984646797 -2.681866407
-11.98348522 -7.200404644 -2.71750164
-14.81038666 -8.891942978 -2.736038685
-15.47541428 -9.287542343 2.216072083
-15.40297985 -9.240414619 2.844917297
-15.46723175 -9.271618843 -0.9450827241
-15.31037903 -9.1739645 4.120653629
-8.451036453 -5.045828342 -2.637366056
-9.950876236 -5.936621666 -2.67511797
-11.98874855 -7.14956522 -2.713303804
-14.833004 -8.838736534 -2.734787226
-15.44473076 -9.199602127 2.207297564
-15.38261795 -9.158967972 2.835530996
-15.36900902 -9.14359951 3.476158381
-15.42236805 -9.175345421 -0.9404771328
-2.788764477 -1.658481598 0.7490870357
-2.783140421 -1.66963613 0.5140436292
-2.783249378 -1.667720318 0.7490870357
-8.456962585 -5.009406567 -2.633742571
-9.971538544 -5.901850224 -2.67511797
-15.45174026 -9.145415306 0.9410005212
-12.00687408 -7.103674412 -2.711777449
-15.43954468 -9.130921364 1.569326282
-14.85356331 -8.780874252 -2.732910156
-15.40155315 -9.101198196 2.196573019
-15.37027454 -9.07909584 2.827396631
-15.41302204 -9.097090721 -0.9379650354
-15.20462894 -8.970515251 4.07566309
-8.473527908 -4.981334686 -2.633742571
-9.970890999 -5.856906891 -2.669719219
-12.01174164 -7.052884102 -2.707579613
-15.40100765 -9.039330482 1.562353849
-14.8723774 -8.725571632 -2.731032848
-15.39740181 -9.029990196 2.191698313
-15.31509018 -8.978125572 2.811753035
-15.37416935 -9.005550385 -0.9337781072
-15.23429298 -8.920044899 4.07566309
-2.855669975 -1.686820984 0.5253069401
-2.794536591 -1.648736835 0.7490870357
-2.885106087 -1.691328168 0.5296871066
-2.84371233 -1.665061951 0.7607844472
-8.473370552 -4.939541817 -2.628048658
-10.00912952 -5.830131054 -2.674218178
-12.02054501 -6.998933315 -2.703763485
-14.86669445 -8.649149895 -2.724149704
-15.34459496 -8.923598289 2.179511309
-15.30007553 -8.894135475 2.802992821
-15.37409019 -8.926394463 -0.9316846728
-15.1590271 -8.801525116 4.046869278
-8.49639225 -4.915285587 -2.630119085
-10.0115366 -5.787154675 -2.669719219
-12.04368782 -6.959033012 -2.703763485
-15.36022091 -8.87180233 1.551895142
-14.89871597 -8.60177803 -2.724775553
-15.32252216 -8.842897415 2.172199249
-15.2713089 -8.809788704 2.792355299
-15.32400131 -8.82949543 -0.9268698096
-15.12734413 -8.716183662 4.030673027
-2.891285658 -1.680742383 0.5296871066
-2.839684248 -1.6487571 0.758085072
-2.872152328 -1.65489769 0.7652834654
-8.507647514 -4.880266666 -2.628048658
-15.38025761 -8.819054604 0.309466064
-10.00901031 -5.73685503 -2.663420439
-15.31800365 -8.779805183 0.9252997041
-12.04696846 -6.902156353 -2.698802471
-14.91642857 -8.539261818 -2.722272635
-15.29625034 -8.753155708 2.163912058
-15.24862671 -8.722371101 2.782343388
-15.31464005 -8.749491692 -0.9243576527
-15.1607008 -8.658034325 4.030673027
-8.521273613 -4.848628998 -2.627013206
-10.02459145 -5.701705456 -2.662520647
-15.34855747 -8.72628212 0.9252997041
-12.05904007 -6.853271961 -2.696130991
-15.29511642 -8.688835144 1.5389961
-14.92405224 -8.478041649 -2.718518019
-15.26305008 -8.667096138 2.155137539
-15.22400093 -8.637895584 2.772331476
-15.28102112 -8.663198471 -0.920589447
-15.18932819 -8.607712746 4.030673027
-2.988682747 -1.709557295 0.5453305244
-2.817565203 -1.609066606 0.7490870357
-2.883920908 -1.634302855 0.7652834654
-8.538146019 -4.818854332 -2.627013206
-10.03863239 -5.661096096 -2.660721064
-15.37892437 -8.672652245 0.9252997041
-12.07091713 -6.804388046 -2.693459749
-15.28022194 -8.609962463 1.534464002
-14.9481411 -8.419407845 -2.71726656
-15.26011848 -8.591617584 2.150262594
-15.16798592 -8.536260605 2.756688118
-15.27581024 -8.593432426 -1.533418179
-15.24899101 -8.574840546 3.400597811
-15.23606396 -8.564072609 -0.9159839153
-15.11204338 -8.490890503 4.001879215
-8.538058281 -4.779584885 -2.621836901
-15.29576492 -8.562533379 0.3059755862
-10.0505476 -5.623969555 -2.65892148
-15.28011417 -8.546768188 0.9175539613
-12.09630871 -6.763169289 -2.693841457
-15.22322369 -8.507971764 1.525748491
-14.96908188 -8.365937233 -2.7160151
-15.23653507 -8.511921883 2.142950535
-15.17009354 -8.467857361 2.751682281
-15.21872044 -8.491517067 -1.524702549
-15.1676178 -8.463004112 3.37617445
-15.23647118 -8.497934341 -0.914309144
-15.07884121 -8.406568527 3.985682726
-15.29994869 -8.526337624 -0.3057312667
-15.02701569 -8.370801926 4.60904932
-3.000544786 -1.688650846 0.5453305244
-2.913676739 -1.637085676 0.7715821266
-3.006421089 -1.678166628 0.5453305244
-2.919089317 -1.627414584 0.7715821266
-8.553860664 -4.751245499 -2.621836901
-10.05989456 -5.583178043 -2.656222105
-12.10150242 -6.713495255 -2.69002533
-15.25135326 -8.457443237 1.525748491
-14.97400475 -8.300226212 -2.711635113
-15.20711803 -8.425973892 2.134663343
-15.13588142 -8.383049965 2.740418911
-15.1352272 -8.375785828 3.362436056
-15.21361065 -8.41569519 -0.9111689925
-15.10809422 -8.35388279 3.985682726
-8.573778152 -4.723222256 -2.622872114
-10.06811142 -5.544147491 -2.65352273
-12.12314224 -6.670265675 -2.689643621
-15.22840881 -8.375349998 1.520519137
-14.994524 -8.246717453 -2.710383654
-15.15495682 -8.331507683 2.123451471
-15.13388634 -8.313046455 2.734787226
-15.16292 -8.325550079 3.362436056
-15.18190479 -8.332525253 -0.907610178
-15.02978516 -8.245622635 3.957788944
-2.958860159 -1.636074781 0.780580163
-3.017774105 -1.657663941 0.5453305244
-2.974520445 -1.63187778 0.7832795978
-8.57665062 -4.685855389 -2.618731022
-15.20908833 -8.306043625 0.3024851084
-10.08494282 -5.50534153 -2.652622938
-12.12739563 -6.617563248 -2.685445786
-15.22256947 -8.303061485 1.517032862
-15.02118015 -8.189813614 -2.709757805
-15.15053082 -8.256907463 2.118576765
-15.10730267 -8.22992897 2.724775553
-15.13037491 -8.239073753 -1.507271409
-15.17725468 -8.257734299 -0.9055167437
-14.99485302 -8.155099869 3.940692663
-8.589557648 -4.654048443 -2.617695808
-10.10314369 -5.471868515 -2.652622938
-12.13315487 -6.565846443 -2.681629658
-15.13930416 -8.189206123 1.505876899
-15.0256691 -8.127737999 -2.705690622
-15.11496544 -8.172631264 2.109802008
-15.08727551 -8.150854111 2.7160151
-15.0479269 -8.126203537 3.324274302
-15.12370777 -8.163718224 -0.9007018209
-15.02181339 -8.105330467 3.940692663
-14.97095394 -8.071142197 4.557285786
-3.023542166 -1.647119761 0.5453305244
-2.959938288 -1.609791994 0.7778807282
-3.029273272 -1.636555672 0.5453305244
-2.975550413 -1.605519891 0.780580163
-8.595540047 -4.618550301 -2.61458993
-10.12313175 -5.434801579 -2.652622938
-12.15254021 -6.521597385 -2.68086648
-15.10459042 -8.102404594 1.499601722
-15.02576256 -8.056742668 -2.700371742
-15.12032318 -8.104048729 2.106389761
-15.06688023 -8.072020531 2.707254887
-15.11830711 -8.08938694 -0.8986083865
-2.974541426 -1.590926886 0.7787805796
-8.610808372 -4.590021133 -2.61458993
-10.12733841 -5.393873692 -2.649023533
-12.16829777 -6.475448132 -2.679339886
-15.01751709 -7.98831749 -2.694114447
-3.151412964 -1.675636053 0.4382421672
-3.012712955 -1.600539207 0.5403246284
-3.084692717 -1.638088942 -0.3055680394
-3.081933737 -1.635934472 -0.1828618348
-2.997014999 -1.590187907 0.7832795978
-3.041572094 -1.612469077 0.9224310517
-3.034967422 -1.625971556 0.5453305244
-8.617325783 -4.553015232 -2.611484051
-3.044910908 -1.608117104 0.06010608748
-3.083871365 -1.628005147 0.1827571541
-12.23770809 -6.457672119 -2.689643621
-3.071632385 -1.620173216 0.3038249314
-3.038115978 -1.601139307 0.4216679335
-3.050689459 -1.607085466 -0.4233740866
-3.028767824 -1.595537186 0.5422018766
-3.065711021 -1.614315152 -0.3031276762
-3.012471676 -1.585609436 0.6617255807
-3.024277449 -1.59114933 -0.179093644
-3.007997513 -1.581913829 0.7846292853
-3.047713041 -1.60280025 -0.06010608748
-2.994172812 -1.573976278 0.9063842893
-2.989522457 -1.566208005 -0.9043137431
-3.046684265 -1.596154928 0.06003627926
-3.012480259 -1.577565551 -0.7850791812
-3.03998971 -1.591295481 0.179826349
-3.016337156 -1.578243852 -0.6617255807
-3.041959047 -1.590973854 0.3003386855
-3.033488512 -1.586543679 -0.5422018766
-3.032853842 -1.585537672 0.4202055037
-3.031371117 -1.584088922 -0.4199617505
-3.032567978 -1.584040523 0.5418890119
-3.041302919 -1.58792758 -0.3001643717
-3.028155088 -1.581062913 0.6640152931
-3.03839016 -1.585732102 -0.1796170026
-2.978671551 -1.55390358 0.775631249
-3.063927889 -1.597699523 -0.06031551585
-2.997935534 -1.56262207 0.9058666825
-2.987843037 -1.552722454 -0.902243197
-3.043364525 -1.580901265 0.05986175314
-3.002403259 -1.558958292 -0.7810300589
-3.029296875 -1.572922349 0.1788842976
-3.007613897 -1.560997367 -0.6586726308
-3.057829618 -1.586382747 0.3013845682
-3.005689383 -1.558667064 -0.5362573266
-3.045419455 -1.578595519 0.4211804569
-3.031594515 -1.570758104 -0.4192305505
-3.023772717 -1.566705346 0.539386034
-3.032398462 -1.570503354 -0.2987698913
-3.024938345 -1.565970182 0.6621072292
-3.042133093 -1.574198604 -0.1795123369
-2.985808372 -1.54439187 0.7760811448
-3.042566776 -1.573749781 -0.05979194492
-3.009965181 -1.556221008 0.9079372287
-2.977789164 -1.534319878 -0.8975844383
-3.043257475 -1.568052649 0.05975703895
-3.007556438 -1.548993349 -0.7810300589
-3.057853699 -1.574222922 0.1802450269
-3.002570391 -1.545099497 -0.6563829184
-3.059804916 -1.5738765 0.3010359406
-3.028407812 -1.557726741 -0.539386034
-3.064760685 -1.575749397 0.4231303632
-3.038552046 -1.561603665 -0.4194742739
-3.0344944 -1.558848739 0.5403246284
-3.043179035 -1.562638998 -0.2992928326
-3.049325705 -1.565795183 0.6663050056
-3.052667379 -1.566837907 -0.179826349
-3.008251905 -1.543377638 0.780580163
-3.035586119 -1.556732178 -0.05954761058
-3.008502483 -1.542179823 0.9058666825
-2.985113382 -1.524273992 -0.8981021047
-3.056380272 -1.559992194 0.05989665911
-3.016953707 -1.539204955 -0.7819298506
-3.088510513 -1.575712204 0.1817104369
-3.027451992 -1.543895125 -0.6605807543
-3.058452606 -1.559031844 0.3003386855
-3.032606602 -1.545190215 -0.5390731692
-3.060175419 -1.558564544 0.4216679335
-3.044525862 -1.54992497 -0.4194742739
-3.06131196 -1.558470607 0.5440790653
-3.059540272 -1.556896329 -0.3003386855
-3.050065756 -1.551404834 0.6651601791
-3.055100203 -1.553294539 -0.1796170026
-3.031528711 -1.540644288 0.7850791812
-3.060881138 -1.555561423 -0.05993156508
-3.024468899 -1.536392331 0.9089725018
-3.014545918 -1.526060104 -0.9053490162
-3.075809479 -1.557073712 0.06017589569
-3.035951614 -1.536230803 -0.7855290771
-3.097556353 -1.566724539 0.1819197834
-3.060855627 -1.547490716 -0.6666866541
-3.092327595 -1.56272459 0.3031276762
-3.044766188 -1.538689137 -0.5403246284
-3.075958014 -1.553778172 0.4231303632
-3.067368984 -1.548767686 -0.4219116569
-3.077314377 -1.553115368 0.545956254
-3.089860201 -1.558770537 -0.3027790487
-3.062204838 -1.544819117 0.6666866541
-3.067367792 -1.546752095 -0.1800356954
-3.036620855 -1.530582905 0.7850791812
-3.077007294 -1.550266027 -0.06014099345
-3.040165901 -1.531039119 0.912078321
-3.019589901 -1.516055226 -0.9053490162
-3.091949463 -1.551709294 0.06038532779
-3.041295767 -1.525624037 -0.7855290771
-3.099164248 -1.554653049 0.1817104369
-3.055440426 -1.532052159 -0.6643969417
-3.108179808 -1.557817817 0.3041735291
-3.067780018 -1.536899567 -0.5434533358
-3.081362963 -1.543031693 0.4231303632
-3.060063362 -1.532365561 -0.4202055037
-3.093046665 -1.548207164 0.5478335023
-3.105703115 -1.553864479 -0.3038249314
-3.06582284 -1.533242464 0.6663050056
-3.087040186 -1.54317987 -0.1808730662
-3.048918009 -1.523458004 0.7868787646
-3.082131386 -1.540053725 -0.06014099345
-3.06250906 -1.52958107 0.9172546864
-3.042158365 -1.514113426 -0.9105253816
-3.111399889 -1.54857564 0.06066456437
-3.074254274 -1.529418349 -0.79272753
-3.133185625 -1.558054209 0.1833851933
-3.067801952 -1.52487278 -0.6659234166
-3.117167234 -1.548731804 0.3045221567
-3.099395514 -1.539902091 -0.5481463671
-3.118465424 -1.548698187 0.4275176525
-3.079618216 -1.528735757 -0.4221554101
-3.112588167 -1.54442513 0.5503364205
-3.114677906 -1.544784665 -0.3041735291
-3.090237379 -1.532662868 0.6705027819
-3.10287714 -1.538257122 -0.1815010905
-3.087129354 -1.529778957 0.7954269052
-3.101823807 -1.536386251 -0.06042023003
-3.074754715 -1.522310257 0.9193252325
-3.040233374 -1.500596762 -0.9084548354
-3.11678648 -1.537705302 0.06066456437
-3.083069563 -1.520401716 -0.7936273217
-3.149082899 -1.552955866 0.1840132177
-3.086929321 -1.521635294 -0.6689763665
-3.136583805 -1.545431018 0.305916667
-3.097663403 -1.52558279 -0.546894908
-3.129195452 -1.540433407 0.4282488823
-3.093841314 -1.522358656 -0.4233740866
-3.133644342 -1.541944146 0.5531522632
-3.125147104 -1.537085533 -0.3046964705
-3.081473589 -1.514937162 0.6674498916
-3.126152992 -1.536225319 -0.1825478226
-3.094199657 -1.519852757 0.795876801
-3.12305522 -1.534026384 -0.06073437259
-3.090190649 -1.51721406 0.9224310517
-3.068011761 -1.501012087 -0.9151841402
-3.132646084 -1.53263402 0.06087399274
-3.105600834 -1.518730521 -0.7981263399
-3.158073187 -1.543708205 0.1842225641
-3.113389492 -1.521193027 -0.6735557318
-3.145539761 -1.536221623 0.3062652946
-3.104480505 -1.516168952 -0.5472077727
-3.139638186 -1.532660723 0.4289800823
-3.091736555 -1.508608699 -0.4223991334
-3.149660349 -1.53619206 0.5550295115
-3.151984215 -1.536644459 -0.3067882061
-3.097068787 -1.509872317 0.6697395444
-3.134820938 -1.527599931 -0.1827571541
-3.113238335 -1.51641047 0.7994760275
-3.1373806 -1.527492404 -0.06090889871
-3.10936451 -1.513180852 0.9265722036
-3.081923962 -1.494508147 -0.9177723527
-3.163434744 -1.53335309 0.06136266142
-3.114653826 -1.509037137 -0.7990261316
-3.188606262 -1.5448668 0.1856879741
-3.122214317 -1.512027383 -0.6743189692
-3.154469728 -1.526968479 0.3066138923
-3.108238459 -1.503919959 -0.546894908
-3.155956984 -1.526328802 0.430442512
-3.109755516 -1.503314614 -0.4241053164
-3.162117243 -1.528627276 0.5562809706
-3.180649996 -1.536901593 -0.3090542555
-3.09904623 -1.496803045 0.6689763665
-3.140398741 -1.516100049 -0.1827571541
-3.131061077 -1.51091814 0.8026253581
-3.175110817 -1.532174826 -0.06153718382
-3.135507822 -1.512389421 0.9327838421
-3.107755423 -1.494325876 -0.9239839911
-3.179316044 -1.528051734 0.06157208979
-3.137206316 -1.507138848 -0.8035251498
-3.193979502 -1.533727169 0.1856879741
-3.145172596 -1.509614944 -0.6781351566
-3.188522339 -1.529737115 0.3094028831
-3.129237652 -1.501294613 -0.549710691
-3.186059952 -1.527871847 0.4338548481
-3.102193117 -1.48698771 -0.4223991334
-3.172778368 -1.520140648 0.5572195649
-3.196777344 -1.53095305 -0.3101001382
-3.169507742 -1.517893553 0.68309623
-3.167026997 -1.51602602 -0.1840132177
-3.134296179 -1.499685764 0.8021754622
-3.187655926 -1.524533391 -0.06167680398
-3.151225328 -1.506434441 0.9358896613
-3.120447397 -1.485703826 -0.9260545373
-3.203216314 -1.524425983 0.06192113832
-3.160567999 -1.503452897 -0.808024168
-3.217615366 -1.530589819 0.1867346913
-3.147138596 -1.496391058 -0.6773719192
-3.194107533 -1.518040419 0.3094028831
-3.183154821 -1.512153864 -0.5581581593
-3.20266223 -1.52073586 0.4353173077
-3.177820683 -1.508260608 -0.4319049418
-3.189036131 -1.51358366 0.5590967536
-3.193366528 -1.514956117 -0.3092285693
-3.184182167 -1.509918213 0.6850042939
-3.196287155 -1.514975071 -0.1853739619
-3.16292572 -1.4984864 0.808024168
-3.178765059 -1.505990505 -0.06139756739
-3.163709641 -1.498181701 0.9379602075
-3.122120142 -1.473153591 -0.9250192642
-3.197402954 -1.508675456 0.06171170995
-3.179636717 -1.499614 -0.8116233945
-3.244617462 -1.529568791 0.1879907548
-3.177206278 -1.497112274 -0.6827145815
-3.213806868 -1.513673186 0.3107973933
-3.200661182 -1.507481694 -0.5603482723
-3.225647688 -1.518562317 0.4377546906
-3.188193321 -1.500249863 -0.4326361716
-3.205025196 -1.507487178 0.5609740019
-3.218468904 -1.513124466 -0.3111459911
-3.189171791 -1.499350786 0.6850042939
-3.21033144 -1.508614659 -0.1858973205
-3.178460598 -1.492960572 0.8107236028
-3.209344149 -1.506783366 -0.06188623235
-3.19690156 -1.500260592 0.9462424517
-3.151743174 -1.473702192 -0.9322661757
-3.22827363 -1.508799911 0.0622003749
-3.181580544 -1.486300349 -0.8107236028
-3.249937057 -1.518233657 0.1879907548
-3.193086147 -1.49099648 -0.6850042939
-3.22990346 -1.507501602 0.3118432462
-3.2133255 -1.499081135 -0.5615997314
-3.241986513 -1.511763096 0.4392171204
-3.218598127 -1.500856996 -0.4360485077
-3.231753111 -1.506304622 0.5647284389
-3.24540329 -1.511977434 -0.3132377267
-3.212443113 -1.495939612 0.6888204813
-3.24816823 -1.512575626 -0.1877814084
-3.19778657 -1.488435268 0.8143228292
-3.250845909 -1.512441993 -0.06258433312
-3.216132641 -1.495609045 0.950383544
-3.191666842 -1.479491711 -0.9426189661
-3.244145632 -1.503130317 0.062409807
-3.204174757 -1.483931184 -0.815222621
-3.265827656 -1.512484074 0.1886187792
-3.24077177 -1.500193238 -0.6941631436
-3.260199785 -1.508495808 0.3142836094
-3.239794016 -1.498367548 -0.5653541684
-3.239774466 -1.4976722 0.4382421672
-3.227161169 -1.491841435 -0.4365359843
-3.240316868 -1.497236609 0.5653541684
-3.261252165 -1.506219387 -0.3142836094
-3.249470949 -1.500090122 0.6956896186
-3.242286205 -1.496773362 -0.1871533841
-3.213321447 -1.482721806 0.8170222044
-3.261291027 -1.504166007 -0.06268904358
-3.228092194 -1.488170862 0.9524540901
-3.207602024 -1.472619891 -0.9457247853
-3.271442652 -1.501238108 0.06282866001
-3.202507019 -1.468927503 -0.8134230375
-3.285872459 -1.507165551 0.1894561648
-3.235540628 -1.483395934 -0.6918734312
-3.291064501 -1.508156776 0.3167239726
-3.245264053 -1.486483097 -0.5653541684
-3.270510674 -1.497356653 0.4416545033
-3.257876158 -1.491572261 -0.4399483204
-3.26374507 -1.493570209 0.5684828162
-3.263127089 -1.492598653 -0.3139349818
-3.262089252 -1.491435528 0.6972160935
-3.257092237 -1.48846364 -0.1876767427
-3.231141329 -1.476604223 0.820171535
-3.26496315 -1.491371751 -0.06265413761
-3.237039566 -1.477934003 0.9534893632
-3.215984583 -1.463575482 -0.9467600584
-3.28732419 -1.495349288 0.06303808838
-3.253484011 -1.479270577 -0.8251204491
-3.319942713 -1.509487629 0.1911309063
-3.23329258 -1.469409227 -0.6903469563
-3.292419672 -1.495586872 0.316375345
-3.268162251 -1.483879924 -0.5684828162
-3.298957586 -1.497167826 0.4448231161
-3.280881166 -1.4889642 -0.4423857033
-3.279473543 -1.487635136 0.5703600645
-3.277131557 -1.485883236 -0.3148065507
-3.27953434 -1.486282587 0.6998873949
-3.292938471 -1.491664648 -0.1894561648
-3.244895697 -1.4699018 0.8224210739
-3.2972157 -1.492908716 -0.06317771226
-3.256002665 -1.473563671 0.9576304555
-3.219059229 -1.452108502 -0.9462424517
-3.303202629 -1.489371538 0.0632475242
-3.258371592 -1.468473554 -0.8251204491
-3.321288347 -1.496828675 0.1909215748
-3.261417866 -1.46916163 -0.69530797
-3.308261395 -1.489568591 0.3174212277
-3.278469086 -1.475466132 -0.5694214702
-3.312956095 -1.490291715 0.4460417926
-3.29847312 -1.483776808 -0.4440918863
-3.29339695 -1.480802178 0.5719243884
-3.291127443 -1.479091287 -0.3156780899
-3.309517145 -1.486661673 0.7052300572
-3.299430132 -1.482130647 -0.1895608306
-3.260418892 -1.46392262 0.8251204491
-3.282079935 -1.472960114 -0.06279376149
-3.28554821 -1.47382772 0.9648774266
-3.229147673 -1.44379127 -0.9477953315
-3.322728872 -1.484936714 0.06352675706
-3.288133383 -1.468787551 -0.8314191103
-3.348116875 -1.495581746 0.1921776384
-3.278820753 -1.463941097 -0.697979331
-3.324099302 -1.483461618 0.3184670806
-3.285147905 -1.46539104 -0.5697343349
-3.332384109 -1.485764265 0.447991699
-3.31062746 -1.476063848 -0.4450668395
-3.301898003 -1.471480966 0.572550118
-3.317854166 -1.477897763 -0.3177698255
-3.309048176 -1.473283172 0.7040851712
-3.326221943 -1.480929494 -0.1908168942
-3.304424286 -1.47053349 0.8350183368
-3.312525749 -1.47344625 -0.06328242272
-3.290417671 -1.462924361 0.9648774266
-3.266214371 -1.446023107 -0.9571128488
-3.335463762 -1.475985169 0.06366638094
-3.293494701 -1.456726074 -0.8314191103
-3.349922895 -1.481684446 0.191968292
-3.302120447 -1.459852099 -0.7017954588
-3.340448618 -1.476099968 0.3195129633
-3.285075665 -1.450946212 -0.5687957406
-3.343255281 -1.475945592 0.4487229288
-3.319647312 -1.465523362 -0.445554316
-3.305461884 -1.458571553 0.5722372532
-3.341478348 -1.473767519 -0.3195129633
-3.296461582 -1.453225613 0.7002689838
-3.329799891 -1.467922568 -0.1907122284
-3.308008671 -1.457626462 0.8345684409
-3.3526752 -1.476609468 -0.0639456138
-3.302829742 -1.453968048 0.9669479728
-3.290451288 -1.443722248 -0.9628068209
-3.34766531 -1.4681288 0.06380599737
-3.309015989 -1.450490475 -0.8341184855
-3.384085655 -1.483396888 0.1936430335
-3.30874157 -1.449681759 -0.7021771073
-3.381826162 -1.480999351 0.3229991794
-3.306155682 -1.447173476 -0.5716115236
-3.357224703 -1.468829274 0.4499416053
-3.300846577 -1.444163084 -0.4423857033
-3.317519903 -1.450768113 0.5734887719
-3.371905565 -1.47385025 -0.3219533265
-3.299463511 -1.441500187 0.6998873949
-3.345630884 -1.46167016 -0.1913402528
-3.323539257 -1.45132792 0.8372678161
-3.352055311 -1.463083744 -0.06384090334
-3.335963964 -1.455367208 0.9752301574
-3.29394865 -1.430882692 -0.9622892141
-3.386040449 -1.470184565 0.06443428248
-3.328611374 -1.444559097 -0.8377177119
-3.393164158 -1.472573876 0.1938523799
-3.326640368 -1.443013787 -0.7048484087
-3.376263857 -1.463839173 0.3219533265
-3.311437607 -1.435046077 -0.5716115236
-3.380801201 -1.464404583 0.4523789883
-3.318868399 -1.437578201 -0.4440918863
-3.355444908 -1.452726007 0.5791203976
-3.369970798 -1.458316565 -0.3212560713
-3.34256506 -1.445764422 0.7079013586
-3.37112999 -1.45811975 -0.1924916506
-3.343146324 -1.445323348 0.8408670425
-3.372080326 -1.457133651 -0.06412014365
-3.348369837 -1.44619453 0.9773007035
-3.302224398 -1.421479344 -0.9633244872
-3.390897036 -1.458948016 0.06443428248
-3.365607262 -1.447370887 -0.8458159566
-3.416376591 -1.469204187 0.1948990971
-3.335014582 -1.433524966 -0.7056116462
-3.39208293 -1.45735383 0.3229991794
-3.367000818 -1.445881605 -0.5803718567
-3.392935276 -1.456317306 0.4533539712
-3.350979567 -1.438309073 -0.4477479756
-3.382028341 -1.450936794 0.5828748345
-3.400424242 -1.458126187 -0.3236964345
-3.350950003 -1.436218977 0.7086645961
-3.392468691 -1.454013944 -0.1934336871
-3.362251043 -1.440368056 0.844466269
-3.398952961 -1.455388904 -0.06453900039
-3.353147268 -1.435082912 0.9773007035
-3.329233885 -1.417292356 -0.9695361257
-3.38936615 -1.442192554 0.06429466605
-3.382150173 -1.438424945 -0.8485153913
-3.44797802 -1.466421604 0.1963645071
-3.369650841 -1.432414651 -0.711717546
-3.408908367 -1.448400259 0.3240450621
-3.380050659 -1.435442686 -0.5816233158
-3.417026758 -1.450441837 0.4557913542
-3.382308483 -1.435704708 -0.4511603117
-3.413284063 -1.448150158 0.5872550011
-3.41725564 -1.44913137 -0.3247422874
-3.392839909 -1.438079 0.7162969708
-3.396690369 -1.439011693 -0.1933290213
-3.38774395 -1.435221553 0.8494151831
-3.419499159 -1.447970867 -0.0648182407
-3.387346029 -1.4336586 0.9855829477
-3.351715326 -1.413752317 -0.9747125506
-3.423612118 -1.443374634 0.06485313922
-3.383309841 -1.425688028 -0.8476155996
-3.45282197 -1.454979539 0.1963645071
-3.396094084 -1.430377245 -0.7162969708
-3.46143651 -1.457187057 0.3285771608
-3.41028285 -1.434951901 -0.5860034823
-3.440116405 -1.446798325 0.4582287371
-3.412668705 -1.435254693 -0.4545726478
-14.72664547 -6.190511703 2.530171156
-3.444084644 -1.447052598 -0.326834023
-3.44827342 -1.448104501 0.7269822955
-3.423542738 -1.43701601 -0.1945850849
-14.48095036 -6.078310966 3.625761032
-3.439033985 -1.442812443 -0.06509747356
-3.466907024 -1.453794718 1.007323742
-3.436277866 -1.444478273 0.5903836489
-3.44818759 -1.447360516 0.8633621335
-3.363760233 -1.405022383 -0.9767830968
-3.491370916 -1.457608938 0.06603990495
-10.61081123 -4.427722454 -2.654422522
-12.70734119 -5.299967289 -2.676286936
-14.71746159 -6.135331154 1.395014763
-14.70955181 -6.129020691 -2.523913622
-14.67485523 -6.111557961 1.951859355
-3.45797348 -1.440123558 -0.4599348903
-14.63144875 -6.090484142 2.510147333
-3.555807352 -1.479411602 -0.3369441032
-14.73666477 -6.128246784 -0.8364332318
-14.50207901 -6.027725697 3.625761032
-14.45877075 -6.003806591 4.194939137
-8.94670105 -3.702186823 -2.594402075
-3.551621675 -1.468951702 0.0670870468
-10.54619503 -4.359753609 -2.634626865
-3.59184885 -1.484855533 0.2036915421
-12.68129921 -5.239805698 -2.667128086
-14.73772621 -6.086492538 1.395014763
-14.61293602 -6.031970501 -2.503890038
-14.66567993 -6.050746918 1.947959542
-14.57121181 -6.008795738 2.496381283
-3.597534895 -1.482796788 -0.3404303193
-14.54196453 -5.990796089 3.057141781
-14.71997166 -6.064129353 -0.8343397975
-14.49315643 -5.967730522 3.618562698
-3.633696079 -1.495476127 -0.06858795881
-14.4786005 -5.955826759 4.194939137
-3.424234629 -1.428878546 -0.856613636
-3.433681965 -1.432117105 -0.7231661081
-3.51063776 -1.463494658 0.332760632
-3.415271044 -1.423039079 -0.5860034823
-3.514781713 -1.463782191 0.4674907923
-3.492362499 -1.453730106 0.5991439819
-3.483613968 -1.448662043 -0.1977252364
-3.453218699 -1.435315251 0.8633621335
-3.460185766 -1.429719448 -0.727745533
-3.515471697 -1.451844931 0.332760632
-3.519616365 -1.452118754 0.4674907923
-3.511773586 -1.448165655 0.6016469598
-3.536412716 -1.456882119 -0.20044671
-3.48318696 -1.434243798 0.8696607947
-8.944760323 -3.661220551 -2.589743376
-3.583147049 -1.465904117 0.06757571548
-10.58089542 -4.326602936 -2.639125824
-12.71222878 -5.195530891 -2.669417858
-14.61343384 -5.969583035 1.381069899
-14.61770153 -5.968349934 -2.500761271
-14.63366699 -5.971889019 1.940647483
-14.57954407 -5.946833611 2.493878126
-3.603201866 -1.468972445 -0.3404303193
-14.56486034 -5.934915066 3.057141781
-14.67020702 -5.974856853 -0.8301529288
-14.51596451 -5.912036896 3.618562698
-8.955061913 -3.630812645 -2.589225769
-10.58796024 -4.288565159 -2.637326241
-12.72210884 -5.150400162 -2.667891264
-14.59621048 -5.906143665 1.377583623
-14.58979893 -5.900586605 -2.492626667
-14.63498592 -5.91588974 1.938210011
-14.68835831 -5.937464237 -1.945278406
-14.58819485 -5.894013405 2.492001057
-14.68161774 -5.928778172 -1.385253429
-14.58446121 -5.886583805 3.057141781
-14.6566 -5.912725925 -0.828268826
-14.47404385 -5.83907938 3.603266001
-3.480188608 -1.422364831 -0.7307984233
-3.575838566 -1.458544731 0.611658752
-3.538533211 -1.441167712 -0.2002373636
-3.524764299 -1.435559869 0.8786588311
-3.595307827 -1.452598691 0.6141617298
-3.608053207 -1.457015634 -0.3404303193
-3.661834717 -1.477247357 -0.2069363743
-3.569264174 -1.439902902 0.8885566592
-8.964722633 -3.596527576 -2.588190556
-10.5819006 -4.241030216 -2.631927252
-12.73725605 -5.102276802 -2.667128086
-14.6177597 -5.852606297 1.377583623
-14.61132812 -5.847072601 -2.492626667
-14.6012764 -5.84009409 1.930897832
-14.51431942 -5.802375317 2.47573185
-14.51477623 -5.796682358 3.038060904
-14.63634396 -5.84523201 -0.8259660602
-14.4193325 -5.755648136 3.584370136
-8.978395462 -3.5674932 -2.588708162
-10.61764145 -4.214543343 -2.637326241
-12.73585701 -5.052770138 -2.663311958
-14.63708687 -5.804100037 1.377583623
-14.53881741 -5.762196064 -2.476983309
-14.59472466 -5.781406879 1.927485585
-14.49674797 -5.739668369 2.469474554
-14.44263744 -5.712413788 3.018980026
-14.61850166 -5.781972408 -0.8238726258
-14.42384243 -5.702068806 3.580770969
-3.563922882 -1.424746037 0.607904315
-3.666969061 -1.464456201 -0.2069363743
-3.556418896 -1.419586778 0.884057641
-3.642094374 -1.442007184 0.620419085
-3.582854033 -1.41638267 0.8894564509
-8.984783173 -3.535577774 -2.587155104
-10.59165859 -4.163626194 -2.627428293
-12.72696018 -5.000457764 -2.657969236
-14.65625381 -5.755529881 1.377583623
-14.51371384 -5.696630478 -2.469474554
-14.51772118 -5.695279598 1.914811134
-14.47524261 -5.675700188 2.46259141
-14.46150112 -5.664488792 3.018980026
-14.57436562 -5.708697319 -0.8203137517
-14.3737154 -5.62721014 3.563674688
-8.980257988 -3.499450922 -2.582496405
-10.61085606 -4.130600929 -2.628777981
-12.7434721 -4.958226204 -2.657969236
-14.52670574 -5.649127007 1.363638759
-14.48465347 -5.629863739 -2.461339951
-14.54763031 -5.651418686 1.916273594
-14.44978905 -5.610507488 2.455082417
-14.65652752 -5.684892178 -0.8238726258
-14.35595703 -5.56542635 3.554676533
-14.23887253 -5.51431942 4.091411591
-3.573293924 -1.401077986 0.607904315
-3.587531328 -1.40449369 0.8894564509
-3.762064457 -1.460719585 0.6391912103
-3.599436998 -1.395406842 0.891256094
-8.978603363 -3.460954428 -2.578355312
-10.59318924 -4.079077244 -2.620679855
-12.7542305 -4.90866518 -2.656442881
-14.54731274 -5.595845699 1.363638759
-14.50519085 -5.576736927 -2.461339951
-14.50153828 -5.57242775 1.907498956
-14.45181561 -5.550426483 2.451953888
-14.59585762 -5.602824688 -1.36782217
-14.43470669 -5.538074493 3.005241632
-3.651135206 -1.400808454 -0.2049476057
-14.32895088 -5.494630814 3.542979002
-3.71769762 -1.424857497 -0.06949548423
-14.25898838 -5.462094307 4.091411591
-8.995445251 -3.433227777 -2.579908133
-10.58844948 -4.036984444 -2.616180658
-12.77594185 -4.868440628 -2.657587767
-14.49131298 -5.519208908 1.356666327
-14.41283607 -5.486439705 -2.442567825
-14.45685482 -5.50030756 1.899211884
-14.41105747 -5.480004311 2.441941977
-3.657627583 -1.38940239 -0.2050522715
-14.31794357 -5.436017036 3.535780668
-3.692488432 -1.401170015 -0.06893700361
-14.27702236 -5.414779663 4.091411591
-3.767392874 -1.44692111 0.6391912103
-3.691865444 -1.415696025 0.9128513932
-3.772170305 -1.434420109 0.6391912103
-3.689252377 -1.400678754 0.9110517502
-8.999524117 -3.395252943 -2.577320099
-10.56740093 -3.982553005 -2.607182741
-12.77249432 -4.811044216 -2.653008223
-14.54969025 -5.477565289 1.360152483
-14.43379593 -5.43105793 -2.442567825
-14.47786808 -5.444756985 1.899211884
-14.38391685 -5.40655899 2.433807373
-14.44906425 -5.428168297 -1.35039103
-14.39309597 -5.404275894 2.988450527
-3.683744431 -1.382427692 -0.2062036693
-14.29492283 -5.364567757 3.524982929
-3.746521711 -1.405240655 -0.06984452903
-14.29770851 -5.359920025 4.091411591
-9.00711441 -3.364038944 -2.576284885
-14.54902267 -5.430975437 0.2710707784
-10.57689857 -3.946125984 -2.606282949
-14.48359013 -5.403670311 0.8101605773
-12.76998329 -4.761803627 -2.649192095
-14.43335438 -5.379189491 1.347602129
-14.37768173 -5.355582714 -2.430052996
-14.42515087 -5.370398045 1.889949799
-14.47537994 -5.389098167 -1.896530747
-14.3832531 -5.351941586 2.430678606
-14.4669857 -5.380223751 -1.35039103
-14.37413311 -5.342836857 2.980818033
-3.699542046 -1.374377489 -0.2068316936
-14.26513767 -5.299489975 3.513285637
-3.736163855 -1.387240529 -0.06956528872
-14.22484589 -5.278871536 4.065529346
-3.777650356 -1.419925451 0.6391912103
-3.676358461 -1.379655838 0.906552732
-3.782338142 -1.407390475 0.6391912103
-3.772251129 -1.401389003 0.9290478826
-8.998868942 -3.32521224 -2.570590734
-10.59426498 -3.910531282 -2.607182741
-12.7754755 -4.713121891 -2.646902323
-14.4221344 -5.317746639 1.344813108
-14.36663246 -5.294433594 -2.425047159
-14.41027927 -5.307662487 1.885562539
-14.35364914 -5.283959389 2.422544241
-14.3447876 -5.275011539 2.970896006
-3.741810083 -1.375235319 -0.2089251429
-14.23690605 -5.229699612 3.501588106
-3.688425779 -1.354884148 -0.06858795881
-14.243186 -5.229185581 4.065529346
-9.001349449 -3.290463686 -2.568002462
-10.58154869 -3.866015673 -2.600884199
-14.52096176 -5.302425385 0.8101605773
-12.78447247 -4.665805817 -2.645375967
-14.41814709 -5.259178638 1.342721343
-14.3655529 -5.239994049 -2.421918392
-14.38304043 -5.243528843 1.879712701
-14.33117199 -5.218952656 2.415661097
-14.50419426 -5.279094696 -1.35039103
-14.41016769 -5.244872093 2.980818033
-3.74071908 -1.36077106 -0.2086111158
-14.23951817 -5.177132607 3.497988939
-14.39476013 -5.230730057 -0.2673359513
-14.17056274 -5.14646244 4.039647579
-3.777362108 -1.387553573 0.9290478826
-3.792071342 -1.380950689 0.6391912103
-3.781942844 -1.375019789 0.9290478826
-9.02606678 -3.262046337 -2.571625948
-10.60364628 -3.828003883 -2.602683783
-12.80148792 -4.618916988 -2.645375967
-14.43732643 -5.206298351 1.342721343
-14.31123257 -5.158004284 -2.409403563
-14.36571598 -5.174808502 1.874837995
-14.32418346 -5.15702343 2.41128087
-3.764711857 -1.353153348 -0.2096578479
-14.22994804 -5.111877441 3.490790367
-3.837290764 -1.378484249 -0.07117091119
-9.026484489 -3.226618052 -2.568520308
-10.61261272 -3.791508675 -2.601783991
-12.80643845 -4.570244312 -2.643086195
-14.45541191 -5.155870914 1.342721343
-14.30220985 -5.10122776 -2.405023575
-14.36035919 -5.119143009 1.871913075
-14.28999138 -5.08843708 2.402520418
-3.778587341 -1.344008327 -0.2101812065
-14.15501308 -5.03202343 3.468295336
-3.834542036 -1.362403274 -0.07103129476
-3.89003706 -1.400499582 0.6548346877
-3.78719449 -1.360488057 0.9290478826
-3.791685343 -1.347921729 0.9290478826
-9.024385452 -3.192157745 -2.564896822
-10.62945747 -3.755738974 -2.602683783
-12.80671406 -4.522521496 -2.640033245
-14.37848949 -5.074751377 1.334005833
-14.28267193 -5.038130283 -2.398766041
-14.31823158 -5.04786396 1.86411345
-14.28815651 -5.034457207 2.39939189
-14.27999973 -5.025980473 2.942656279
-3.807748795 -1.339426279 -0.2115419358
-14.17249203 -4.982582569 3.468295336
-14.22367764 -4.997788906 4.039647579
-9.024532318 -3.156810284 -2.561790943
-10.63449478 -3.717897177 -2.600884199
-14.40503216 -5.033283234 0.7996934056
-12.8187151 -4.476495743 -2.639270067
-14.30206108 -4.991703033 1.325290203
-14.26200008 -4.977720737 -2.392508745
-14.28241158 -4.982048512 1.857288837
-14.25341129 -4.966352463 2.390631437
-14.29658794 -4.978598595 2.942656279
-3.851781368 -1.340578437 -0.2137400508
-14.11899471 -4.911228657 3.451199055
-14.05855274 -4.884704113 3.987883806
-3.796367168 -1.334678054 0.9290478826
-3.800772429 -1.322081566 0.9290478826
-9.031845093 -3.124026537 -2.56075573
-10.63699913 -3.675076723 -2.598184586
-12.832407 -4.431082249 -2.638888359
-14.31939793 -4.941749096 1.325290203
-14.28014851 -4.925414562 -2.392508745
-14.28556156 -4.924491882 1.855338931
-14.24077797 -4.906273365 2.385625601
-3.854780436 -1.325802445 -0.2136353701
-14.129529 -4.85691309 3.449399471
-3.905100346 -1.342347145 -0.07207843661
-14.07551861 -4.835600853 3.987883806
-9.035383224 -3.089979887 -2.558685064
-10.62331104 -3.630959272 -2.591886044
-12.83107471 -4.380552769 -2.635453939
-14.29884815 -4.878866673 1.321804047
-14.33379364 -4.890790462 -2.398766041
-14.26423645 -4.86427784 1.850464106
-14.2054615 -4.838700294 2.376865149
-14.18231487 -4.828053951 2.91212678
-3.87428236 -1.318158746 -0.2144727558
-14.13079739 -4.805012226 3.445800304
-3.909762144 -1.328707695 -0.07207843661
-14.09231186 -4.786438465 3.987883806
-3.923538208 -1.348685026 0.9578415751
-3.902159214 -1.326883554 0.9515429735
-9.049240112 -3.061238527 -2.559720278
-10.63222885 -3.59260726 -2.590986252
-12.84181118 -4.336722851 -2.634690523
-14.30362129 -4.827600479 1.320758104
-14.2234993 -4.797793388 -2.377490997
-14.2284584 -4.796700478 1.843639374
-14.1802454 -4.777690887 2.369982243
-14.16186714 -4.765995026 2.904494524
-14.33228302 -4.820561409 -0.7924710512
-14.10315228 -4.740755081 3.435002565
-14.10810661 -4.73968029 3.987883806
-9.063006401 -3.03243947 -2.56075573
-10.64038754 -3.55609417 -2.59008646
-12.85500813 -4.291248798 -2.634309053
-14.24100685 -4.751159191 1.313436985
-14.21684456 -4.743098259 -2.37373662
-14.18402576 -4.729397774 1.835839748
-14.27713108 -4.75767374 -1.847782969
-14.14810753 -4.711934566 2.361847639
-14.22919655 -4.736182213 -1.312042594
-14.17759418 -4.719006062 2.904494524
-14.27617455 -4.749051094 -0.7884935141
-14.06331921 -4.675517559 3.421505451
-3.882646084 -1.305900335 -0.2146820873
-4.016345978 -1.337617755 0.6704781055
-3.928648472 -1.306887388 -0.216984868
-3.966577053 -1.318735719 0.9650400281
-9.085064888 -3.002839088 -2.56386137
-10.63484478 -3.510962248 -2.585587502
-12.84753609 -4.238968372 -2.629729509
-14.22011948 -4.683588982 1.838277221
-10.0665493 -3.313606977 1.67854178
-10.09544373 -3.319213152 2.065698147
-3.950489044 -1.298090696 -0.2179269195
-9.959009171 -3.270503759 2.420023441
-9.92282486 -3.256702662 2.798351526
-9.095491409 -2.97110796 -2.56386137
-10.20376492 -3.333133221 0.1873690337
-9.96726799 -3.250105143 -2.037840128
-10.08734417 -3.287311792 0.9282086492
-9.974915504 -3.250673056 -1.661646843
-10.06040859 -3.276591539 1.299127221
-10.02545643 -3.261337757 1.669781446
-10.13511086 -3.295053005 -0.9323921204
-10.00184059 -3.251724958 2.044327497
-10.12626743 -3.290223837 -0.5580059886
-9.958678246 -3.233849287 2.417324066
-10.19683075 -3.309216499 -0.1871246994
-9.963534355 -3.231581926 2.806633711
-3.960275173 -1.300540566 0.9623405933
-4.025586128 -1.309545994 0.6704781055
-3.962370157 -1.287452102 -0.2183456123
-4.012756348 -1.303049326 0.9740380645
-9.069549561 -2.925888777 -2.553508759
-10.10610104 -3.258338928 0.1853445619
-9.988247871 -3.218417406 -2.422722816
-10.15518856 -3.272208929 0.5591573715
-9.956687927 -3.206330061 -2.033260584
-10.06897926 -3.240551472 0.9254196882
-9.968518257 -3.206299782 -1.658518195
-10.03133869 -3.224573374 1.293764949
-10.05269051 -3.229501486 -1.296446085
-10.01477432 -3.217320442 1.666027069
-10.1091795 -3.245702505 -0.9289059043
-10.02546883 -3.216895819 2.04661727
-10.06275177 -3.226922035 -0.5538190603
-9.922772408 -3.180123568 2.405626535
-10.11367702 -3.241305828 -0.1853794605
-9.945875168 -3.185613632 2.798351526
-9.07234478 -2.891865492 -2.551438093
-10.10160828 -3.219949722 0.1850653142
-10.02486134 -3.193558693 -2.429021597
-10.16654873 -3.236740828 0.5591573715
-9.941627502 -3.163221359 -2.0279181
-10.06504059 -3.200554371 0.924025178
-9.994155884 -3.17801404 -1.661021113
-10.02684212 -3.186480761 1.291815042
-9.995234489 -3.174515486 -1.287671447
-9.988287926 -3.170390368 1.659769654
-10.1584301 -3.222443819 -0.9323921204
-10.0061388 -3.174134254 2.04051137
-10.0581665 -3.188706398 -0.5529817343
-9.903539658 -3.137783527 2.398428202
-10.02960873 -3.175800323 -0.1836342216
-9.901679993 -3.133391142 2.782822371
-3.988204718 -1.278936982 -0.2194969952
-4.017729759 -1.287631869 0.9740380645
-9.086568832 -2.859754324 -2.552473307
-10.04904079 -3.160738945 0.1838785559
-9.944096565 -3.125823736 -2.406526327
-10.10594082 -3.176697493 0.5551798344
-9.926932335 -3.11852479 -2.022575378
-10.05389214 -3.156481028 0.9219334722
-9.991207123 -3.134885073 -1.658518195
-10.04657936 -3.150332928 1.292789936
-10.00734997 -3.136113405 -1.287671447
-9.969680786 -3.124308586 1.654763818
-10.06369877 -3.151843071 -0.9226306677
-9.988275528 -3.126307249 2.03440547
-10.04364967 -3.141714811 -0.5515162945
-9.911794662 -3.098570585 2.39752841
-10.04118156 -3.139018774 -0.1836342216
-9.902033806 -3.093622208 2.779716492
-9.08911705 -2.825724602 -2.55040288
-10.05946636 -3.127397776 0.1838785559
-9.954407692 -3.092830658 -2.406526327
-9.911507607 -3.075708151 -2.017232656
-10.02298355 -3.108383656 0.9180985689
-9.971360207 -3.092373848 -1.653512239
-10.03800964 -3.111123323 1.290352583
-10.01769447 -3.102910519 -1.287671447
-9.965429306 -3.084815741 1.65226078
-10.02515125 -3.101385355 -0.9180985689
-9.976080894 -3.086205006 2.029826164
-10.03111553 -3.10131216 -0.5502602458
-9.869882584 -3.049576998 2.384931087
-10.05207729 -3.103949308 -0.1836342216
-9.875853539 -3.047645807 2.76936388
-4.026841164 -1.258848786 0.9740380645
-4.111848354 -1.272829652 0.6817414165
-4.098021507 -1.266198635 0.9902345538
-9.098924637 -2.793980598 -2.55040288
-10.07086182 -3.09050703 0.1838785559
-9.898605347 -3.035755396 -2.390329838
-10.10495758 -3.099040747 0.5539237857
-9.910921097 -3.037640095 -2.014942884
-10.02234268 -3.069876909 0.9170527458
-9.952404976 -3.046554804 -1.648506403
-9.992398262 -3.056889772 1.283040404
-10.02846432 -3.067923307 -1.287671447
-9.953468323 -3.043080568 1.648506403
-10.03972721 -3.067536592 -0.9184471965
-9.95728302 -3.04044652 2.023720264
-9.988926888 -3.04820323 -0.5473294258
-9.884721756 -3.014518499 2.385830879
-10.06285095 -3.068842173 -0.1836342216
-9.867952347 -3.007521868 2.764187336
-9.108622551 -2.762202263 -2.55040288
-10.08105469 -3.057093859 0.1838785559
-9.882508278 -2.995001078 -2.384031296
-9.887639999 -2.992788315 -2.008073807
-10.01011276 -3.027951241 0.9149609804
-9.954890251 -3.01124692 -1.647254944
-9.960676193 -3.011099815 1.277678251
-10.00110722 -3.021417141 -1.282796741
-9.948901176 -3.003750324 1.646003485
-10.0122242 -3.020962238 -0.9149609804
-9.929718971 -2.996068001 2.01608777
-9.968384743 -3.005836248 -0.5456546545
-9.868541718 -2.973851204 2.379532337
-10.04669571 -3.025624514 -0.1831455529
-9.833992958 -2.959696054 2.751764059
-4.237166405 -1.295431733 0.7017650008
-4.132883549 -1.245430231 0.9965331554
-9.114030838 -2.730872869 -2.549367666
-10.04185772 -3.006971359 0.1829710305
-9.859297752 -2.950429916 -2.375932932
-10.0301466 -3.00155735 0.5486901402
-9.882463455 -2.955483198 -2.005020857
-9.985737801 -2.984470129 0.9118233919
-9.900987625 -2.957258224 -1.636617422
-9.959712982 -2.972905397 1.276215792
-10.00017929 -2.983083487 -1.281334281
-9.917162895 -2.958319426 1.63912034
-9.995456696 -2.979774952 -0.912520647
-9.932590485 -2.959146261 2.014561415
-9.990301132 -2.97444129 -0.5462827086
-9.845241547 -2.929381847 2.371433973
-10.01067352 -2.978605032 -0.1823078394
-9.82523632 -2.92156291 2.746587753
-9.119802475 -2.69794631 -2.548332214
-10.02876282 -2.96684742 0.1825521737
-9.88397789 -2.922139168 -2.379532337
-10.04056358 -2.966527224 0.5486901402
-9.858827591 -2.910961866 -1.998151779
-9.996094704 -2.949595213 0.9118233919
-9.914528847 -2.925527334 -1.637243152
-9.954284668 -2.93536973 1.274265885
-9.994783401 -2.945416212 -1.279384375
-9.916059494 -2.920335531 1.637243152
-9.963747978 -2.932490349 -0.9086858034
-9.904681206 -2.915106297 2.006928921
-9.988613129 -2.93791461 -0.5456546545
-9.843684196 -2.893420458 2.368734598
-9.986474991 -2.933498383 -0.1816795468
-9.827960014 -2.885071993 2.744517088
-4.182033062 -1.244334221 1.007330775
-4.250280857 -1.251731873 0.7017650008
-4.23474741 -1.244747758 1.019028306
-9.118038177 -2.662846565 -2.545226574
-10.00501728 -2.91998601 0.1819238812
-9.819789886 -2.864067316 -2.361536264
-10.05085754 -2.931461096 0.5486901402
-9.846310616 -2.869937897 -1.993572354
-9.948943138 -2.897968531 0.906594038
-9.89863205 -2.881439686 -1.632862926
-9.949728012 -2.894429922 1.272315979
-9.975013733 -2.899897337 -1.275484562
-9.895843506 -2.876881123 1.632237196
-9.973922729 -2.897692442 -0.9086858034
-9.888903618 -2.871120691 2.001586437
-9.964787483 -2.891266823 -0.5437706113
-9.816789627 -2.846467972 2.359736443
-9.962082863 -2.88859725 -0.1810512692
-9.845393181 -2.852899075 2.746587753
-9.134243011 -2.634737015 -2.547297001
-9.98005867 -2.876822233 0.1812956035
-9.851704597 -2.837961197 -2.366935015
-10.02264214 -2.885308504 0.5465967059
-9.83740139 -2.830122232 -1.989756227
-9.947509766 -2.859919548 0.9055481553
-9.900538445 -2.84641552 -1.631611466
-9.932560921 -2.853745222 1.268903613
-9.96549511 -2.861324787 -1.273047209
-9.890634537 -2.837962151 1.629734278
-9.957164764 -2.855170965 -0.9062454104
-9.871949196 -2.830735922 1.996243715
-9.932081223 -2.846102476 -0.5414677858
-9.822428703 -2.81282568 2.358836651
-9.999020576 -2.861507893 -0.1815399379
-9.825573921 -2.810015678 2.738305569
-4.254624367 -1.236887932 0.7017650008
-4.239281178 -1.229218364 1.019028306
-4.258916378 -1.22202909 0.7017650008
-4.243333817 -1.215153575 1.019028306
-9.13269043 -2.598068953 -2.544191122
-9.975148201 -2.835849762 0.1810163558
-9.83954525 -2.795443058 -2.361536264
-10.02112579 -2.847030401 0.5459687114
-9.847220421 -2.795766115 -1.989756227
-9.934431076 -2.818652868 0.9034564495
-9.869094849 -2.798254251 -1.624728322
-9.916214943 -2.809745073 1.265491247
-9.93771553 -2.813963413 -1.268172383
-9.889077187 -2.800190926 1.627857089
-9.95556736 -2.817141533 -0.9051995277
-9.907850266 -2.79990387 -0.539583683
-4.266513348 -1.204889059 1.023527265
-9.993553162 -2.822239637 -0.1812606901
-4.279945374 -1.207875967 1.191602826
-9.141703606 -2.56617403 -2.544191122
-9.848761559 -2.762798548 -2.361536264
-4.357793808 -1.22163856 0.2371865511
-9.822891235 -2.751842976 -1.98288703
-4.322651863 -1.210159659 0.3927237689
-4.29938364 -1.202836514 0.5481683016
-4.278759003 -1.195455909 0.7036422491
-4.354199409 -1.215714335 -0.3955127597
-4.275399685 -1.193713069 0.8628382683
-4.295798302 -1.198600292 -0.2337323874
-4.244205475 -1.183406591 1.017228723
-4.289899349 -1.195340395 -0.0777330175
-4.239470482 -1.180491686 1.179179549
-4.320175171 -1.223300815 0.7111510634
-4.224154472 -1.170667768 -1.17452085
